# .PCD v0.7 - Point Cloud Data file format
VERSION 0.7
FIELDS x y z
SIZE 4 4 4
TYPE F F F
COUNT 1 1 1
WIDTH 457
HEIGHT 1
VIEWPOINT 0 0 0 1 0 0 0
POINTS 457
DATA ascii
-0.18860501 -0.054397628 1.0465649
-0.18659915 -0.055394322 1.0481569
-0.15439686 -0.051433235 1.0430539
-0.087523594 -0.05959034 1.0576193
-0.04546814 -0.05342871 1.0494367
-0.037862007 -0.053267151 1.0494202
-0.029152054 -0.052490249 1.0484923
-0.028069098 -0.052418977 1.0484158
0.0045217648 -0.05284214 1.0500585
0.010999922 -0.05302082 1.0505302
0.019698028 -0.053602174 1.0516881
0.021872427 -0.053571925 1.0517079
0.06115121 -0.053133935 1.0522316
0.085648216 -0.056472972 1.0581062
0.11246194 -0.059029624 1.0628496
0.13471813 -0.055357099 1.057887
0.15417472 -0.054002613 1.0563992
0.21306828 -0.0554564 1.060426
0.21543427 -0.055802599 1.0610298
0.23701504 -0.054743677 1.0600607
0.23941632 -0.054762512 1.0601628
0.24927829 -0.054952055 1.0607543
0.26526377 -0.055866688 1.062646
0.30621976 -0.055019915 1.062593
0.31502733 -0.054897249 1.0626729
0.32079771 -0.05486767 1.0628031
0.32189742 -0.054852366 1.0628132
0.32299709 -0.054837078 1.0628232
0.33247823 -0.038579814 1.0381424
0.33197966 -0.037517898 1.0364963
0.33149192 -0.036502115 1.0349213
0.33099416 -0.035487622 1.033348
0.32881966 -0.030707285 1.0259396
0.32833162 -0.029698335 1.0243751
0.32785353 -0.028690211 1.0228121
0.3271285 -0.027314581 1.0206772
0.32615742 -0.02561789 1.0180417
0.32425043 -0.021963634 1.0123711
0.32355055 -0.020329118 1.0098393
0.32308203 -0.019329421 1.0082896
0.32239285 -0.017744988 1.0058351
0.32193425 -0.016747549 1.0042892
0.32124394 -0.015121855 1.0017712
0.32078612 -0.014172785 1.0002996
0.32032779 -0.013201788 0.99879426
0.31986964 -0.012240805 0.99730432
0.3194114 -0.011280745 0.99581581
0.31826866 -0.00904461 0.99234653
0.31758419 -0.0077734888 0.99037337
0.31645143 -0.0055623725 0.98694277
0.31155851 0.0037402958 0.97250581
0.31003773 0.0067737252 0.96780044
0.30960956 0.0076762587 0.96640116
0.3091813 0.0085780025 0.96500313
0.30875304 0.0094788745 0.96360648
0.30833483 0.010374539 0.96221805
0.30747828 0.012163147 0.95944488
0.30706 0.013051741 0.9580673
0.30600744 0.0151181 0.95486152
0.30558917 0.015999459 0.95349514
0.30517098 0.016875669 0.95213664
0.30475262 0.017755531 0.95077252
0.30186099 0.023529954 0.9418155
0.30145264 0.02439056 0.94048125
0.30104437 0.025245707 0.9391554
0.30003184 0.027229376 0.93607783
0.29901937 0.029200025 0.93302029
0.29801685 0.03115809 0.92998236
0.29702434 0.033103548 0.9269641
0.29662606 0.033933122 0.92567778
0.29565689 0.036144782 0.9222514
0.29507604 0.037520364 0.92012095
0.29468769 0.038341615 0.91884774
0.29429936 0.039157707 0.91758251
0.29332677 0.041055404 0.91463822
0.2929484 0.041864689 0.91338372
0.29256004 0.042673223 0.91213006
0.29218173 0.043476447 0.91088486
0.29122922 0.045343805 0.90798777
0.29027671 0.047198437 0.90511024
0.28989828 0.047993518 0.90387756
0.28913847 0.049298637 0.90184987
0.28856441 0.050340001 0.90023291
0.28801045 0.051376499 0.89862412
0.28744638 0.052411642 0.89701706
0.2868824 0.053441331 0.89541841
0.2845065 0.058319472 0.88785368
0.28397527 0.059603531 0.88586533
0.28343406 0.060880825 0.88388705
0.28307566 0.061637416 0.88271403
0.28272724 0.062393256 0.88154256
0.28147638 0.064889714 0.87767017
0.28058395 0.066622891 0.87498099
0.28004998 0.067602128 0.87346071
0.27951607 0.068575904 0.87194884
0.27899215 0.069548897 0.87043846
0.27811983 0.071247168 0.86780351
0.27777132 0.071981899 0.86666441
0.27742288 0.072711416 0.86553335
0.2765606 0.074390747 0.86292779
0.2762222 0.075114071 0.86180651
0.2755453 0.076554008 0.85957432
0.27520686 0.07727097 0.85846281
0.27486843 0.077987328 0.85735226
0.2745299 0.078703091 0.8562426
0.27401605 0.079638995 0.8547895
0.27266997 0.082203448 0.85080975
0.27234149 0.082906649 0.8497197
0.27100533 0.085444644 0.84578091
0.27067694 0.086136281 0.84470862
0.27034843 0.086832218 0.84362972
0.27002999 0.087523118 0.84255886
0.26970151 0.08821328 0.84148884
0.269373 0.088902861 0.84041971
0.26824224 0.09116935 0.83690417
0.26744208 0.092997499 0.83407193
0.26712358 0.093674168 0.83302295
0.26601279 0.095901623 0.82956797
0.26522249 0.097700901 0.82678038
0.26445207 0.099486232 0.82401484
0.2641336 0.10015022 0.82298529
0.26382497 0.10081133 0.82196051
0.2633512 0.1016718 0.82062447
0.26257896 0.10318438 0.81827778
0.26210523 0.10403271 0.81696039
0.26041561 0.10721812 0.81201649
0.26010695 0.10785961 0.8110218
0.25980851 0.10849957 0.8100298
0.25950989 0.10914119 0.80903524
0.25921133 0.10977823 0.80804771
0.25875771 0.11061013 0.80675614
0.257707 0.11269645 0.80351979
0.2569547 0.11414276 0.80127549
0.25622258 0.11558016 0.7990455
0.25402746 0.12009431 0.79204535
0.25374898 0.12070735 0.79109532
0.25346038 0.12131731 0.79014969
0.25317174 0.12192726 0.78920406
0.25288314 0.12253723 0.78825843
0.25244948 0.1233225 0.7870391
0.25201601 0.12410621 0.78582221
0.25130379 0.12548947 0.78367597
0.25045806 0.12728323 0.78089517
0.2501795 0.1278812 0.77996826
0.24893008 0.13042134 0.77602881
0.24822786 0.13177295 0.7739315
0.24781437 0.13252972 0.77275658
0.24740095 0.13328192 0.77158868
0.24670887 0.13461699 0.76951706
0.24562436 0.13692006 0.76594675
0.24495226 0.1382357 0.76390553
0.2442802 0.13953924 0.76188302
0.24177849 0.14499778 0.75342304
0.24151976 0.14555369 0.75256133
0.24099253 0.1466638 0.75084025
0.239833 0.14902061 0.74718511
0.2395743 0.14956442 0.746342
0.23829015 0.15205431 0.74247867
0.23803155 0.15259352 0.74164259
0.23778282 0.15312992 0.74081117
0.23752421 0.15366915 0.73997509
0.23727547 0.15420553 0.73914367
0.236384 0.15573338 0.73676991
0.23415521 0.16025287 0.72976053
0.23390651 0.16077717 0.7289477
0.23341908 0.16181827 0.72733384
0.23304567 0.16248021 0.72630572
0.23268238 0.16314527 0.72527325
0.23230921 0.16380563 0.72424763
0.2319458 0.16446769 0.72321969
0.23158257 0.16512065 0.72220576
0.22979711 0.1688218 0.71646678
0.22955826 0.16932353 0.71568882
0.22873759 0.17096657 0.71314037
0.22849898 0.17146671 0.71236491
0.22827023 0.17196408 0.71159405
0.22780272 0.17295857 0.71005237
0.22757396 0.17345589 0.70928156
0.2273453 0.17394863 0.70851779
0.22687782 0.17493105 0.70699465
0.22664903 0.17542082 0.70623547
0.22642022 0.17591059 0.70547622
0.22619155 0.17640331 0.70471251
0.22539069 0.17799674 0.70224077
0.22381671 0.17810807 0.70202184
0.22308689 0.1780979 0.70201522
0.21569443 0.17813277 0.70173651
0.20808315 0.17843105 0.70104653
0.20528835 0.1782589 0.70122582
0.17882229 0.17829458 0.70036483
0.17809249 0.17828442 0.70035821
0.17664289 0.17826422 0.7003451
0.1701047 0.17817315 0.70028579
0.1693849 0.17816316 0.70027924
0.1613027 0.17818382 0.7000013
0.1554199 0.17823513 0.69974333
0.14687112 0.17784959 0.70007509
0.13968761 0.17761171 0.70022166
0.13895783 0.17760153 0.70021504
0.13750823 0.17758135 0.70020187
0.1197408 0.17800927 0.69900346
0.11520891 0.17834884 0.69834387
0.1121909 0.17857331 0.69790715
0.1093661 0.17840073 0.6980862
0.084141791 0.17777994 0.69827133
0.078262687 0.17796752 0.69780415
0.070228055 0.1781221 0.69732201
0.05502383 0.17804359 0.69697946
0.041949257 0.17825663 0.69625401
0.028970838 0.17807588 0.6961363
0.028250039 0.17806584 0.6961298
0.0030131042 0.17771435 0.69590092
0.00084512308 0.17781739 0.69567662
-0.0020376258 0.17777725 0.69565046
-0.0056394003 0.17759383 0.69582248
-0.017176423 0.17743313 0.69571787
-0.017897222 0.17742309 0.69571131
-0.018618029 0.17741308 0.69570476
-0.01933882 0.17740302 0.69569826
-0.020060625 0.17739296 0.6956917
-0.020781416 0.17738295 0.69568515
-0.037364844 0.17715196 0.69553477
-0.048861373 0.17726129 0.69501662
-0.049582195 0.17725126 0.69501013
-0.051022779 0.17723119 0.69499707
-0.066812187 0.17727323 0.69445157
-0.071785673 0.17747045 0.69399714
-0.076818272 0.17740035 0.69395155
-0.078255877 0.17738032 0.69393849
-0.078974694 0.17737031 0.693932
-0.079693481 0.17736031 0.69392544
-0.09411408 0.17702621 0.69399935
-0.097665519 0.17710999 0.69376248
-0.11060596 0.17692977 0.69364512
-0.11204554 0.17690971 0.69363207
-0.11640991 0.17671567 0.69379717
-0.12360793 0.17661542 0.6937319
-0.12431774 0.17660552 0.69372547
-0.12863654 0.17654538 0.69368631
-0.13013169 0.17639132 0.6938774
-0.13091715 0.17625171 0.6940679
-0.13124518 0.17515381 0.69574416
-0.1315733 0.17404836 0.69743204
-0.13177013 0.17342857 0.69837797
-0.13190132 0.17293835 0.6991269
-0.13217379 0.17196235 0.70061761
-0.13230512 0.17146915 0.70137113
-0.1327744 0.16985369 0.70383799
-0.13290559 0.16936347 0.70458698
-0.13304682 0.16886555 0.70534742
-0.13338488 0.16772819 0.707084
-0.13372296 0.16659082 0.70882058
-0.13420227 0.16493586 0.71134782
-0.13475731 0.1629096 0.71444309
-0.13489859 0.16240415 0.71521509
-0.13503991 0.16189113 0.71599871
-0.1351811 0.16138113 0.71677774
-0.13532244 0.16086811 0.71756136
-0.13546376 0.16035511 0.71834499
-0.13581184 0.15917826 0.72014189
-0.1360185 0.15850982 0.7211622
-0.13615973 0.15799224 0.72195286
-0.13630097 0.1574747 0.72274351
-0.13644233 0.15695411 0.72353876
-0.13659364 0.15642884 0.72434092
-0.13687615 0.15538615 0.72593379
-0.13716887 0.15433277 0.72754276
-0.1375269 0.15312399 0.72938842
-0.1376681 0.15259427 0.73019767
-0.13781944 0.15206149 0.73101139
-0.1381121 0.15099597 0.73263901
-0.13825344 0.15046328 0.73345286
-0.13869739 0.14885288 0.73591274
-0.13935743 0.14676079 0.73910582
-0.13957405 0.14606045 0.74017495
-0.13979073 0.14535254 0.74125564
-0.1401687 0.14409955 0.74316859
-0.14032003 0.14354706 0.74401253
-0.14068794 0.1422821 0.74594414
-0.14084929 0.14172947 0.74678802
-0.14107664 0.14078005 0.74823934
-0.14131412 0.1398275 0.74969512
-0.14201568 0.13719015 0.75372446
-0.14240368 0.13589013 0.75570935
-0.14278162 0.13458568 0.75770128
-0.14301825 0.1338457 0.75883067
-0.14324474 0.13310882 0.75995553
-0.14348142 0.13236132 0.76109642
-0.14386921 0.13104002 0.76311398
-0.1440306 0.13046019 0.76399964
-0.144192 0.12988034 0.76488531
-0.14435339 0.12930049 0.76577097
-0.14475131 0.12795642 0.76782322
-0.14491262 0.12737197 0.76871598
-0.1453106 0.12602036 0.77077973
-0.14554715 0.12525615 0.77194631
-0.1457836 0.12448735 0.77311993
-0.14595509 0.12389225 0.77402866
-0.14611635 0.12329572 0.77494001
-0.14627784 0.12270077 0.77584887
-0.14644922 0.1221011 0.77676463
-0.14685704 0.12072054 0.77887261
-0.14709359 0.11993662 0.78006947
-0.14751135 0.1185438 0.78219599
-0.1476728 0.11793672 0.78312349
-0.14776909 0.1175139 0.78376997
-0.14802687 0.11647642 0.78535557
-0.14878905 0.11359027 0.78976518
-0.14896044 0.11297092 0.79071122
-0.14938845 0.11154021 0.79289562
-0.15014762 0.10909382 0.79662991
-0.15057553 0.10763885 0.79885155
-0.15074688 0.1070074 0.79981619
-0.1512813 0.10509925 0.80273062
-0.15153767 0.1042666 0.80400169
-0.15179418 0.10343095 0.80527735
-0.15213536 0.1023955 0.80685729
-0.15248656 0.10135234 0.80844879
-0.1527428 0.100503 0.80974549
-0.1529244 0.099853329 0.81073779
-0.15329899 0.09829697 0.81311679
-0.15357706 0.097187884 0.81481177
-0.15402481 0.095664501 0.8171379
-0.15420631 0.09500391 0.81814694
-0.1543878 0.094342999 0.81915653
-0.15457925 0.093676493 0.82017434
-0.15512188 0.091928974 0.82284182
-0.1553881 0.091047406 0.82418776
-0.15557958 0.090373941 0.82521629
-0.15576108 0.089700326 0.82624537
-0.15595259 0.089025974 0.82727528
-0.15613405 0.088346586 0.82831323
-0.15632562 0.087671369 0.82934445
-0.15660185 0.086776346 0.83071071
-0.15687811 0.08588066 0.83207798
-0.15706958 0.0851942 0.83312643
-0.15726109 0.084507145 0.83417588
-0.15745261 0.083819784 0.83522576
-0.15792032 0.082218893 0.83767033
-0.15839805 0.080610618 0.84012592
-0.15858954 0.079910815 0.84119493
-0.15888789 0.078730151 0.84299922
-0.15907948 0.078028865 0.84407049
-0.15928096 0.077322289 0.84514958
-0.15947247 0.076615535 0.84622926
-0.15996023 0.074974149 0.84873539
-0.16024636 0.074035034 0.85016906
-0.16044791 0.07332091 0.85125971
-0.16073413 0.072380349 0.85269564
-0.16103019 0.071429893 0.85414642
-0.16141097 0.070252404 0.85594332
-0.16190857 0.068568423 0.85851455
-0.16221713 0.067344092 0.86038566
-0.16241865 0.066610888 0.86150563
-0.1626302 0.065876931 0.86262649
-0.16323492 0.063667677 0.86600125
-0.16344649 0.062926792 0.86713272
-0.16364799 0.062180869 0.86827224
-0.16385961 0.061438758 0.86940563
-0.16406117 0.060691632 0.870547
-0.16427277 0.059943799 0.87168914
-0.16457886 0.058953535 0.87320077
-0.16478044 0.058199771 0.87435234
-0.16499202 0.057445291 0.87550467
-0.16529804 0.056443505 0.87703401
-0.16550961 0.05568295 0.8781957
-0.16603726 0.0539129 0.88089824
-0.16644768 0.052650746 0.8828243
-0.16676374 0.051635206 0.88437444
-0.16707966 0.050609376 0.88594037
-0.16739571 0.049587205 0.8875007
-0.16771162 0.04855499 0.88907647
-0.1679232 0.047774747 0.89026839
-0.16814481 0.046993773 0.89146113
-0.16835636 0.046207488 0.89266235
-0.16857794 0.045420457 0.89386439
-0.16869518 0.044886246 0.89468133
-0.1688125 0.044356056 0.89549208
-0.16892973 0.043821283 0.89630985
-0.16904701 0.043285899 0.89712858
-0.16937594 0.041955486 0.89916193
-0.16959763 0.041160025 0.90037692
-0.1699236 0.040100131 0.90199488
-0.17024955 0.039034501 0.90362167
-0.17068981 0.037704051 0.90565169
-0.17101575 0.036631782 0.90728867
-0.17145586 0.035284963 0.90934384
-0.17189603 0.033936899 0.91140091
-0.17223185 0.032847505 0.91306388
-0.17256764 0.031752303 0.91473579
-0.17279923 0.030925807 0.9159981
-0.17303087 0.030098364 0.91726196
-0.17359832 0.028162453 0.92021799
-0.17395745 0.026768453 0.92234814
-0.17430662 0.025367606 0.92448902
-0.1745382 0.024521697 0.92578125
-0.17477992 0.02367935 0.92706764
-0.17501156 0.022831976 0.92836207
-0.17525326 0.021983866 0.92965728
-0.1754849 0.021130417 0.93096107
-0.17572661 0.020275928 0.93226612
-0.17595829 0.019420989 0.93357217
-0.1763276 0.017990276 0.93575835
-0.17668696 0.016553044 0.93795484
-0.17692864 0.015685253 0.93928027
-0.17717035 0.014816865 0.94060671
-0.17752615 0.013656057 0.94237876
-0.17799599 0.012197293 0.94460493
-0.17906955 0.0089647248 0.94953716
-0.17943516 0.007775411 0.95135272
-0.17980081 0.0065848678 0.95317012
-0.18004252 0.0056907535 0.95453602
-0.18040818 0.0044934377 0.9563638
-0.18079767 0.0029939711 0.958655
-0.18104933 0.0020873323 0.96003985
-0.18130104 0.0011798814 0.9614259
-0.18167669 -3.6388636e-05 0.96328253
-0.18192838 -0.00095023215 0.96467847
-0.18230402 -0.0021733269 0.96654558
-0.18267964 -0.0034022331 0.96842158
-0.18317905 -0.0049503297 0.97078407
-0.18367834 -0.0065092444 0.97316325
-0.18394007 -0.007442452 0.97458857
-0.18420176 -0.0083764941 0.97601521
-0.18458724 -0.0096347705 0.97793603
-0.18497273 -0.010894366 0.97985888
-0.18523443 -0.01184053 0.98130417
-0.18550617 -0.012787692 0.98275059
-0.18564411 -0.013416052 0.98371148
-0.18592004 -0.014673896 0.98563504
-0.18646783 -0.016894072 0.98902833
-0.18673959 -0.01785548 0.99049664
-0.18713512 -0.019148022 0.99246985
-0.18765439 -0.020777442 0.99495661
-0.18805975 -0.022086799 0.99695534
-0.18845524 -0.023397811 0.99895686
-0.18886092 -0.024700731 1.0009457
-0.18926609 -0.026037395 1.0029863
-0.18967129 -0.027375296 1.0050288
-0.18995358 -0.028341472 1.0065042
-0.1903735 -0.029993981 1.0090295
-0.1909512 -0.032336868 1.0126103
-0.19163842 -0.034700669 1.01622
-0.19206412 -0.036049291 1.0182784
-0.19247897 -0.03744521 1.0204097
-0.19289482 -0.038796976 1.0224732
-0.19318672 -0.039819688 1.0240351
-0.19361174 -0.041219682 1.0261724
-0.19403687 -0.042621434 1.0283124
-0.19432893 -0.043647811 1.0298799
-0.19461012 -0.04472059 1.0315191
-0.19490227 -0.045749068 1.0330898
-0.19506037 -0.046446353 1.034156
-0.19520941 -0.047098041 1.0351523
-0.19536757 -0.047796458 1.0362202
-0.19552577 -0.048495263 1.0372887
-0.19567484 -0.049148411 1.0382873
